5.25045,2.512759,-25.04227
5.250473,2.512186,-25.04678
5.25049,2.511545,-25.05192
5.2505,2.510932,-25.05646
5.250516,2.510332,-25.06118
5.250495,2.509669,-25.06633
5.250455,2.509057,-25.07096
5.250464,2.508398,-25.07617
5.250455,2.507793,-25.08069
5.250449,2.507168,-25.08534
5.250467,2.506458,-25.09064
5.250436,2.505848,-25.09517
5.250455,2.505136,-25.10034
5.250449,2.504509,-25.1049
5.250466,2.503783,-25.11005
5.250425,2.50316,-25.11457
5.250414,2.502432,-25.11966
5.250386,2.501806,-25.12417
5.250436,2.501084,-25.12921
5.250414,2.500399,-25.13415
5.250414,2.499689,-25.13903
5.250425,2.498995,-25.14383
5.250466,2.498252,-25.14873
5.250477,2.497545,-25.15364
5.25047,2.49688,-25.15826
5.250473,2.496204,-25.16272
5.250434,2.495415,-25.16785
5.250445,2.494692,-25.17254
5.250431,2.493934,-25.1777
5.250412,2.49325,-25.18239
5.25044,2.492465,-25.18718
5.250479,2.491778,-25.1917
5.250503,2.490931,-25.1969
5.250534,2.490269,-25.20172
5.250651,2.489558,-25.20603
5.250612,2.488703,-25.21114
5.250536,2.487868,-25.21629
5.250493,2.487096,-25.22125
5.250496,2.486407,-25.22554
5.250462,2.485615,-25.23036
5.250502,2.484802,-25.23527
5.250418,2.483978,-25.24027
5.250463,2.483216,-25.24506
5.250433,2.48242,-25.24967
5.250386,2.481581,-25.2546
5.250405,2.48074,-25.2596
5.250408,2.480007,-25.2641
5.250407,2.479189,-25.26868
5.250377,2.478266,-25.27405
5.250353,2.477458,-25.27883
5.250397,2.476681,-25.28341
5.250329,2.475804,-25.28843
5.250317,2.475014,-25.29298
5.250387,2.474154,-25.29767
5.250393,2.473257,-25.30288
5.250382,2.472404,-25.30752
5.250378,2.471613,-25.31211
5.250369,2.470754,-25.31676
5.250342,2.469843,-25.32198
5.250333,2.468971,-25.32659
5.250468,2.467982,-25.33185
5.250503,2.46716,-25.33653
5.250469,2.46623,-25.34142
5.250436,2.465427,-25.34588
5.250473,2.464524,-25.35072
5.250489,2.463603,-25.35566
5.250499,2.462735,-25.36034
5.250495,2.461746,-25.36535
5.250476,2.460849,-25.37019
5.250487,2.459939,-25.37474
5.250489,2.459054,-25.37962
5.250497,2.458084,-25.38439
5.250486,2.457129,-25.38948
5.250505,2.456156,-25.39443
5.250469,2.455351,-25.39871
5.250442,2.454384,-25.4035
5.250477,2.453388,-25.40862
5.250455,2.452436,-25.41352
5.250477,2.451564,-25.41788
5.250518,2.450591,-25.42275
5.250542,2.449589,-25.42766
5.250556,2.448632,-25.43248
5.250567,2.447639,-25.43743
5.250578,2.446768,-25.44174
5.250569,2.445663,-25.4471
5.250541,2.44475,-25.4517
5.2505,2.443748,-25.45662
5.250494,2.442767,-25.46124
5.250472,2.441822,-25.46587
5.250534,2.440783,-25.47065
5.250545,2.439834,-25.47538
5.250485,2.438776,-25.4803
5.250424,2.437742,-25.48509
5.250476,2.436726,-25.48995
5.250537,2.435742,-25.49455
5.250549,2.434731,-25.4992
5.250534,2.433608,-25.50442
5.250545,2.432603,-25.509
5.250502,2.431492,-25.51398
5.250513,2.430531,-25.51861
5.250566,2.42952,-25.52298
5.250612,2.428378,-25.52802
5.250632,2.427336,-25.53269
5.250585,2.42626,-25.53738
5.250579,2.425158,-25.54219
5.250578,2.424075,-25.54684
5.250544,2.422989,-25.55146
5.250551,2.421847,-25.55621
5.250547,2.420746,-25.56086
5.250567,2.419505,-25.56593
5.250591,2.418387,-25.57054
5.250594,2.417281,-25.57496
5.250598,2.415987,-25.5801
5.250576,2.414878,-25.58451
5.250367,2.360814,-25.75537
5.250368,2.356994,-25.764
5.250337,2.35311,-25.77279
5.250536,2.349122,-25.78127
5.250571,2.344989,-25.78997
5.250507,2.340743,-25.79866
5.250468,2.336562,-25.80694
5.250313,2.332217,-25.81539
5.250376,2.327693,-25.82391
5.250479,2.323124,-25.83233
5.250522,2.318546,-25.84063
5.250375,2.313886,-25.84876
5.250419,2.308919,-25.85736
5.250508,2.297031,-25.8771
5.250493,2.291841,-25.88537
5.250239,2.28713,-25.89338
5.250262,2.282007,-25.90117
5.250259,2.276777,-25.90937
5.250232,2.271454,-25.91737
5.25033,2.265974,-25.9256
5.250392,2.26085,-25.93323
5.25035,2.255159,-25.94137
5.2503,2.249678,-25.9494
5.250283,2.244258,-25.95715
5.250329,2.238623,-25.96501
5.250419,2.232954,-25.97283
5.250449,2.227257,-25.9806
5.250394,2.221507,-25.98837
5.250418,2.215685,-25.99604
5.250468,2.209943,-26.00366
5.25033,2.204038,-26.01121
5.250363,2.197861,-26.01926
5.250382,2.192275,-26.02642
5.250443,2.186246,-26.03389
5.250326,2.179765,-26.04196
5.250313,2.173878,-26.04935
5.250299,2.167888,-26.05669
5.250224,2.161699,-26.06417
5.250193,2.155403,-26.07186
5.250409,2.149275,-26.07917
5.250242,2.142897,-26.08687
5.250279,2.136689,-26.09431
5.250242,2.130457,-26.10163
5.250255,2.123888,-26.10945
5.250259,2.117642,-26.11681
5.250272,2.111428,-26.12404
5.250214,2.104759,-26.13194
5.250197,2.098544,-26.13928
5.250238,2.092205,-26.14676
5.250309,2.085964,-26.15403
5.250215,2.079615,-26.16153
5.250199,2.073301,-26.16895
5.250344,2.066946,-26.17638
5.250269,2.060328,-26.18411
5.250197,2.054148,-26.19145
5.25023,2.047808,-26.19884
5.250295,2.041317,-26.20647
5.250255,2.034869,-26.21397
5.250286,2.02845,-26.22149
5.250342,2.022234,-26.22877
5.250335,2.015407,-26.23677
5.250352,2.009101,-26.24429
5.250401,2.003004,-26.25147
5.25027,1.996627,-26.25891
5.250271,1.990169,-26.26653
5.250297,1.983766,-26.27407
5.250281,1.977416,-26.28163
5.25038,1.97096,-26.28917
5.250416,1.964445,-26.29687
5.250368,1.958398,-26.30402
5.250328,1.95207,-26.31154
5.250316,1.945726,-26.31902
5.250426,1.939249,-26.32665
5.250402,1.932834,-26.33424
5.25027,1.926399,-26.34183
5.250452,1.920312,-26.34905
5.250417,1.91383,-26.3567
5.250347,1.907331,-26.36444
5.250318,1.900929,-26.37208
5.250365,1.894582,-26.37968
5.250399,1.888651,-26.38679
5.250358,1.88228,-26.39438
5.250344,1.875805,-26.40203
5.250321,1.869233,-26.40985
5.250427,1.863242,-26.41707
5.250487,1.856913,-26.42461
5.25032,1.850358,-26.43242
5.250446,1.844035,-26.44017
5.250438,1.837825,-26.44765
5.250353,1.831773,-26.4549
5.250349,1.825463,-26.46255
5.250347,1.819053,-26.47025
5.250487,1.812805,-26.47792
5.250554,1.806395,-26.48559
5.250365,1.800268,-26.49304
5.250341,1.79401,-26.50063
5.250389,1.787482,-26.50853
5.25047,1.781574,-26.51582
5.250417,1.775281,-26.52341
5.250505,1.768892,-26.5312
5.250527,1.762443,-26.53901
5.250439,1.756438,-26.54639
5.250347,1.750179,-26.55406
5.250282,1.74391,-26.56173
5.250263,1.737601,-26.56946
5.250302,1.731181,-26.57734
5.250513,1.725314,-26.58463
5.250336,1.719065,-26.59233
5.250521,1.712814,-26.60001
5.250412,1.706464,-26.60782
5.25025,1.700486,-26.61521
5.250201,1.694113,-26.62318
5.250243,1.688169,-26.63072
5.250118,1.681833,-26.63844
5.250337,1.675826,-26.64603
5.250426,1.669725,-26.65365
5.250421,1.663408,-26.66152
5.250269,1.657077,-26.66951
5.250213,1.651179,-26.67697
5.250383,1.644961,-26.68487
5.250306,1.638837,-26.69268
5.250279,1.632541,-26.70064
5.250314,1.626671,-26.70824
5.250441,1.620692,-26.71592
5.250394,1.614366,-26.72394
5.2502,1.608256,-26.73198
5.250336,1.602545,-26.73927
5.250291,1.596244,-26.74747
5.250247,1.590323,-26.75536
5.250379,1.584302,-26.7632
5.250416,1.578615,-26.77072
5.250279,1.572533,-26.77875
5.250238,1.566193,-26.78717
5.250268,1.560657,-26.79464
5.250395,1.554589,-26.80266
5.250379,1.548766,-26.81043
5.250364,1.542682,-26.81868
5.250417,1.536901,-26.8266
5.2504,1.531137,-26.83449
5.25033,1.525083,-26.84273
5.250378,1.519557,-26.8503
5.250314,1.513655,-26.85836
5.250268,1.507696,-26.8665
5.250241,1.501747,-26.87472
5.250251,1.49614,-26.8825
5.250243,1.490322,-26.89058
5.250246,1.484438,-26.8988
5.250302,1.478667,-26.90693
5.250341,1.473216,-26.91457
5.250283,1.467289,-26.92296
5.250369,1.461536,-26.93111
5.250467,1.455966,-26.93904
5.250463,1.450312,-26.94726
5.250357,1.444608,-26.95541
5.250313,1.43899,-26.96361
5.250272,1.433285,-26.97181
5.250319,1.42791,-26.97971
5.250351,1.422251,-26.98795
5.250403,1.416475,-26.99647
5.250438,1.411354,-27.00408
5.250441,1.405668,-27.01234
5.250411,1.39985,-27.021
5.250441,1.394248,-27.02941
5.250493,1.389059,-27.03726
5.250384,1.383595,-27.04548
5.250508,1.37793,-27.05403
5.250476,1.372491,-27.06237
5.250488,1.367184,-27.07045
5.250489,1.361723,-27.0789
5.250517,1.356265,-27.08732
5.250548,1.351202,-27.0952
5.250385,1.345793,-27.10365
5.250412,1.340408,-27.11212
5.250585,1.33502,-27.1207
5.250647,1.329804,-27.12896
5.250537,1.324435,-27.13749
5.250446,1.319457,-27.14549
5.250424,1.314163,-27.15404
5.250335,1.308806,-27.1627
5.250505,1.303576,-27.17137
5.250418,1.298372,-27.1799
5.250315,1.293691,-27.18774
5.25033,1.288409,-27.1963
5.250439,1.283035,-27.20524
5.250479,1.278114,-27.21344
5.250554,1.272937,-27.2222
5.250547,1.267902,-27.23083
5.250498,1.262854,-27.23952
5.25053,1.258098,-27.2477
5.25054,1.253111,-27.25625
5.250644,1.24805,-27.26505
5.250538,1.243125,-27.2737
5.250483,1.238142,-27.2824
5.250493,1.233148,-27.29121
5.250392,1.228527,-27.29944
5.250252,1.223662,-27.30824
5.250318,1.218837,-27.31681
5.250263,1.213836,-27.32584
5.250197,1.20927,-27.33418
5.250324,1.204338,-27.34312
5.250536,1.199813,-27.35155
5.250849,1.19521,-27.36014
5.250619,1.190339,-27.36902
5.250624,1.18549,-27.37823
5.250796,1.180961,-27.38685
5.250632,1.176312,-27.39563
5.25059,1.171868,-27.40409
5.250337,1.167146,-27.41315
5.25044,1.162516,-27.42225
5.250485,1.158041,-27.43097
5.250302,1.153645,-27.43959
5.25029,1.149044,-27.44873
5.250378,1.144557,-27.4576
5.250271,1.140389,-27.46599
5.250268,1.135837,-27.47503
5.25022,1.13134,-27.4842
5.250292,1.126881,-27.49311
5.250473,1.12261,-27.50188
5.250457,1.118349,-27.51088
5.250462,1.114073,-27.51964
5.250607,1.109684,-27.52871
5.250489,1.105626,-27.53726
5.250662,1.101272,-27.54647
5.250807,1.096972,-27.55559
5.250846,1.092879,-27.56431
5.250776,1.088589,-27.57373
5.250685,1.084548,-27.58264
5.250539,1.080318,-27.59191
5.250476,1.076405,-27.60046
5.250419,1.07231,-27.60965
5.250444,1.068254,-27.61874
5.250459,1.064249,-27.62791
5.250514,1.060133,-27.63719
5.25057,1.05649,-27.64583
5.250587,1.052469,-27.65479
5.250591,1.048479,-27.66406
5.250605,1.04463,-27.67303
5.25057,1.04086,-27.68177
5.250577,1.036666,-27.69183
5.250682,1.033234,-27.7
5.250788,1.029054,-27.70987
5.250806,1.025352,-27.71887
5.250766,1.021472,-27.72827
5.250554,1.01769,-27.73762
5.250581,1.013962,-27.74676
5.250648,1.010215,-27.756
5.250532,1.006685,-27.7649
5.250737,1.002947,-27.77436
5.250647,0.9993728,-27.78368
5.250669,0.9957273,-27.79286
5.250693,0.9922732,-27.80181
5.250702,0.9886375,-27.81125
5.250698,0.9849613,-27.82086
5.250751,0.9816987,-27.82958
5.250801,0.9781147,-27.83917
5.250692,0.9746565,-27.8486
5.250681,0.9712159,-27.85775
5.250689,0.967879,-27.86671
5.250676,0.9644432,-27.87621
5.250749,0.9609946,-27.88566
5.250686,0.9577023,-27.89469
5.250739,0.9544186,-27.90387
5.250766,0.9509927,-27.91366
5.250746,0.9476685,-27.92315
5.250715,0.9443873,-27.93252
5.25069,0.9412695,-27.94138
5.250737,0.9378619,-27.95131
5.250876,0.9347391,-27.96033
5.250949,0.9314572,-27.96996
5.250845,0.9282116,-27.97946
5.250662,0.9250895,-27.98891
5.250522,0.921926,-27.99831
5.25056,0.9189591,-28.00738
5.250699,0.915827,-28.01706
5.250754,0.9128304,-28.02636
5.25073,0.9098244,-28.03539
5.250686,0.9067389,-28.04516
5.250705,0.9037504,-28.05459
5.250642,0.900828,-28.06381
5.250661,0.8977746,-28.07361
5.250641,0.8949184,-28.08268
5.25066,0.8919432,-28.09234
5.250546,0.8891592,-28.10138
5.250645,0.8861625,-28.11122
5.250744,0.8831893,-28.12099
5.250829,0.8802969,-28.13052
5.250799,0.8774677,-28.14008
5.250781,0.8746989,-28.14947
5.250781,0.8720449,-28.15831
5.250795,0.8691609,-28.16802
5.25081,0.8663034,-28.17771
5.250784,0.8634389,-28.18749
5.250783,0.860865,-28.19645
5.250827,0.8580243,-28.20615
5.250892,0.8552159,-28.21599
5.250736,0.8525331,-28.22543
5.250776,0.8498104,-28.23503
5.250789,0.8472087,-28.24425
5.250774,0.844573,-28.25385
5.250768,0.8419205,-28.26341
5.250744,0.8392462,-28.27295
5.250778,0.8365099,-28.28276
5.250753,0.8339936,-28.29206
5.250766,0.831359,-28.30185
5.250759,0.8287892,-28.31144
5.250772,0.8263371,-28.32056
5.250769,0.8237811,-28.33033
5.250766,0.821236,-28.34
5.250809,0.8186735,-28.34985
5.250827,0.8162414,-28.35913
5.250728,0.8137658,-28.36886
5.250754,0.8112461,-28.37871
5.250741,0.8089874,-28.38785
5.250789,0.8065878,-28.39742
5.250791,0.8041129,-28.40733
5.250737,0.8016882,-28.41718
5.250775,0.7993188,-28.42677
5.250778,0.7970354,-28.43617
5.250748,0.7948378,-28.44563
5.250794,0.7924055,-28.45529
5.250864,0.7900523,-28.46514
5.250891,0.7877268,-28.47505
5.25092,0.7856208,-28.4843
5.250861,0.7834502,-28.49376
5.250823,0.7809389,-28.50402
5.250811,0.779003,-28.51354
5.250854,0.7768819,-28.52296
5.250903,0.7747084,-28.53251
5.250884,0.7725832,-28.54171
5.250929,0.7700782,-28.55181
5.250888,0.7679154,-28.56211
5.250874,0.766035,-28.571
5.250853,0.7637082,-28.58142
5.250858,0.7620328,-28.59089
5.250837,0.7601658,-28.59862
5.250866,0.7573563,-28.60968
5.250842,0.7553778,-28.6205
5.250843,0.7536086,-28.62963
5.250884,0.7516449,-28.63876
5.250899,0.7494457,-28.64862
5.250875,0.7475752,-28.65744
5.250908,0.7450971,-28.66785
5.250891,0.74348,-28.67744
5.250875,0.7410521,-28.68756
5.250872,0.7393961,-28.69829
5.250877,0.7378778,-28.7062
5.250867,0.7357421,-28.71563
5.25091,0.7333772,-28.72648
5.250929,0.7318894,-28.7353
5.250906,0.729482,-28.74548
5.250838,0.7278723,-28.75574
5.250933,0.7261727,-28.76384
5.250896,0.7237905,-28.77454
5.250935,0.72195,-28.78557
5.250869,0.720587,-28.79423
5.250909,0.7185921,-28.80292
5.25092,0.7165096,-28.81336
5.250957,0.7148654,-28.82297
5.250906,0.7128806,-28.83254
5.25095,0.7109145,-28.84308
5.250896,0.7093804,-28.85228
5.250911,0.7075775,-28.86182
5.250967,0.7056633,-28.87226
5.250949,0.7042497,-28.8811
5.251003,0.7019829,-28.89079
5.250975,0.7005768,-28.90145
5.250912,0.6990228,-28.9097
5.250972,0.69667,-28.9202
5.250939,0.6950855,-28.93074
5.25098,0.6936977,-28.94006
5.250868,0.6920731,-28.94923
5.250905,0.6903382,-28.95857
5.25094,0.6884103,-28.96809
5.250882,0.6863858,-28.97854
5.250911,0.684583,-28.98897
5.250929,0.6831588,-28.99957
5.250939,0.6819544,-29.0084
5.250931,0.6803023,-29.01702
5.250906,0.6785577,-29.0274
5.250896,0.6768729,-29.03754
5.250898,0.6753972,-29.04637
5.250916,0.6736051,-29.05568
5.250888,0.6716338,-29.06577
5.250847,0.66979,-29.07682
5.250949,0.6683592,-29.08702
5.250901,0.6670004,-29.09622
5.25088,0.6656806,-29.10565
5.250918,0.6640978,-29.11508
5.250926,0.6625141,-29.12468
5.250891,0.6609478,-29.13461
5.250961,0.659349,-29.14391
5.251004,0.6577004,-29.15418
5.250916,0.6562018,-29.1641
5.25093,0.6547685,-29.17352
5.250898,0.6530608,-29.18344
5.250949,0.6515934,-29.19275
5.251014,0.6500358,-29.20224
5.250966,0.6482873,-29.21237
5.251017,0.6466895,-29.22319
5.251033,0.6454402,-29.23276
5.250983,0.6442418,-29.24163
5.251037,0.6425828,-29.25074
5.251033,0.6407126,-29.26153
5.251022,0.6397693,-29.27087
5.251076,0.637914,-29.28038
5.251088,0.6368689,-29.2903
5.251053,0.6351169,-29.29967
5.25108,0.6334685,-29.31069
5.251096,0.6325415,-29.32011
5.251052,0.6309307,-29.32915
5.251101,0.6294648,-29.33984
5.251075,0.6280955,-29.34961
5.25104,0.626881,-29.35855
5.251048,0.6251333,-29.36839
5.251077,0.6237031,-29.37899
5.251047,0.6225608,-29.38886
5.251066,0.6213764,-29.39751
5.251025,0.619844,-29.40747
5.251044,0.6182636,-29.41758
5.251039,0.6170393,-29.42761
5.251061,0.6158394,-29.43647
5.251068,0.6139574,-29.44691
5.251046,0.6128585,-29.45727
5.251048,0.6117712,-29.46618
5.251112,0.6103266,-29.47552
5.251102,0.608742,-29.48617
5.251101,0.6077223,-29.49558
5.251099,0.6060154,-29.50569
5.251004,0.6050502,-29.51518
5.251013,0.6036007,-29.52487
5.25101,0.6024304,-29.53455
5.251048,0.6008212,-29.54431
5.251016,0.5998453,-29.55425
5.251043,0.5982495,-29.56385
5.25104,0.5972764,-29.57391
5.251065,0.5957525,-29.58377
5.250996,0.5947119,-29.5935
5.251064,0.5932055,-29.6029
5.251073,0.5921664,-29.61326
5.251065,0.5909189,-29.62276
5.251049,0.5897119,-29.63252
5.251081,0.5884253,-29.64233
5.251081,0.587097,-29.65215
5.251138,0.5857424,-29.66208
5.25108,0.5846834,-29.67186
5.251103,0.5833291,-29.68099
5.251046,0.5820376,-29.69178
5.251042,0.5809523,-29.70186
5.251052,0.5799177,-29.7114
5.251098,0.5786793,-29.72109
5.251005,0.5776248,-29.7303
5.250998,0.5763657,-29.74009
5.251075,0.5751763,-29.75018
5.251076,0.5739708,-29.75999
5.251037,0.5727246,-29.76968
5.251091,0.5716774,-29.7798
5.251091,0.5703722,-29.79025
5.251096,0.569654,-29.7994
5.251058,0.568419,-29.80877
5.251078,0.567239,-29.81889
5.251104,0.5659953,-29.8286
5.251049,0.5649991,-29.83855
5.251071,0.5637065,-29.84879
5.251043,0.5628785,-29.85891
5.251088,0.5619833,-29.86737
5.251047,0.5606191,-29.87764
5.251042,0.5597187,-29.8877
5.251069,0.558698,-29.89742
5.251026,0.5575487,-29.9075
5.251034,0.5566503,-29.91697
5.251074,0.555611,-29.92707
5.251025,0.5546672,-29.93688
5.250971,0.5536349,-29.9463
5.25091,0.5527024,-29.95625
5.25094,0.5516686,-29.96591
5.250956,0.5505073,-29.97606
5.250973,0.5496053,-29.98548
5.25098,0.5484808,-29.99581
5.250963,0.5477801,-30.00584
5.250982,0.5467949,-30.01538
5.250963,0.5459446,-30.02506
5.251001,0.5447541,-30.03486
5.250976,0.5440425,-30.04528
5.250897,0.5431941,-30.05418
5.250933,0.5422937,-30.06415
5.250932,0.5412384,-30.07443
5.250915,0.5404387,-30.08399
5.25095,0.539479,-30.09386
5.250956,0.5384875,-30.10446
5.250919,0.5378653,-30.11452
5.25094,0.5371513,-30.12317
5.250968,0.536195,-30.13318
5.250959,0.535496,-30.14283
5.251065,0.5344318,-30.15306
5.250998,0.5338179,-30.16368
5.250979,0.533153,-30.17277
5.250977,0.5323935,-30.18269
5.250993,0.5316612,-30.19181
5.250998,0.5306408,-30.20244
5.250989,0.5300498,-30.21313
5.250972,0.5294439,-30.22177
5.251048,0.5285093,-30.23182
5.250992,0.5279173,-30.2422
5.250998,0.5273222,-30.2516
5.251024,0.5265057,-30.26167
5.251014,0.5259114,-30.27155
5.250994,0.5253481,-30.28133
5.250983,0.5247141,-30.29118
5.251023,0.524066,-30.30106
5.250996,0.5233288,-30.31086
5.250948,0.5229286,-30.32079
5.251073,0.5222622,-30.33047
5.251063,0.5216284,-30.34075
5.251021,0.5210605,-30.35044
5.250976,0.5206219,-30.36043
5.251003,0.520102,-30.37031
5.251031,0.5195723,-30.37999
5.251066,0.5191257,-30.38996
5.251027,0.5185894,-30.39958
5.251059,0.5180076,-30.40982
5.251056,0.5175686,-30.41999
5.251091,0.5171453,-30.42968
5.250958,0.5166063,-30.43915
5.251018,0.5161947,-30.44961
5.251032,0.5158672,-30.45932
5.251005,0.5153347,-30.46881
5.251025,0.5150402,-30.47936
5.251031,0.5147015,-30.48912
5.251033,0.5143374,-30.49858
5.250997,0.5140064,-30.50825
5.250931,0.513571,-30.51877
5.250984,0.5133382,-30.52832
5.250956,0.5129663,-30.53836
5.251075,0.5126423,-30.54822
5.250997,0.512381,-30.55734
5.251028,0.5120897,-30.56752
5.251055,0.5118469,-30.57708
5.251048,0.5115631,-30.58669
5.251088,0.5113347,-30.59692
5.251001,0.5110757,-30.60718
5.251064,0.5108986,-30.61668
5.251058,0.510664,-30.62672
5.251109,0.5104861,-30.63664
5.251123,0.5102727,-30.64591
5.251058,0.5101048,-30.65587
5.251041,0.5099137,-30.6657
5.251034,0.5097365,-30.67571
5.251013,0.509612,-30.68567
5.251011,0.5094412,-30.69577
5.250997,0.5093214,-30.70566
5.250986,0.5091325,-30.71515
5.250953,0.5089834,-30.7252
5.250965,0.5088389,-30.73525
5.251011,0.5087142,-30.74465
5.251034,0.5086026,-30.75453
5.25101,0.5084399,-30.76454
5.25105,0.5083265,-30.77448
5.251003,0.5081789,-30.78434
5.25103,0.5080697,-30.79436
5.251031,0.5079916,-30.80439
5.251029,0.5078954,-30.81361
5.250968,0.5077771,-30.82349
5.250947,0.5076225,-30.83346
5.250983,0.507489,-30.84351
5.250906,0.5073849,-30.85372
5.251004,0.5072956,-30.86314
5.250993,0.5072072,-30.87311
5.251041,0.507088,-30.88301
5.251069,0.5069751,-30.89296
5.251061,0.5068822,-30.90236
5.251004,0.5067667,-30.91232
5.250947,0.5066598,-30.92222
5.250957,0.5065277,-30.93226
5.251047,0.5064531,-30.94223
5.251035,0.5063694,-30.95161
5.250996,0.5062534,-30.9616
5.251044,0.5061797,-30.97154
5.251004,0.5060607,-30.98154
5.251001,0.5059677,-30.99086
5.250977,0.505828,-31.00107
5.250996,0.5057494,-31.01106
5.251008,0.5056921,-31.02039
5.251002,0.5055769,-31.0303
5.250994,0.505495,-31.04032
5.250983,0.5053632,-31.0503
5.250974,0.5052895,-31.06036
5.251014,0.5051856,-31.07
5.251103,0.5050924,-31.07982
5.251101,0.504968,-31.08971
5.25105,0.5048959,-31.09896
5.251026,0.5047372,-31.10912
5.251056,0.5046705,-31.11924
5.251091,0.5045627,-31.12862
5.251168,0.5044808,-31.13871
5.251155,0.504405,-31.14882
5.251224,0.5042848,-31.15858
5.251127,0.5041652,-31.16851
5.251099,0.5040633,-31.17834
5.251072,0.5039897,-31.1882
5.251097,0.5039166,-31.19758
5.251128,0.5038157,-31.20751
5.251112,0.50373,-31.21758
5.251122,0.5036563,-31.22713
5.251076,0.5035796,-31.23724
5.251086,0.5035139,-31.24728
5.25115,0.5034485,-31.25658
5.251113,0.5033642,-31.26656
5.251124,0.5032829,-31.27639
5.251088,0.5031714,-31.28654
5.251065,0.5031255,-31.29657
5.251087,0.5030482,-31.30595
5.251139,0.5029866,-31.31591
5.251091,0.5029031,-31.32584
5.251166,0.5028251,-31.33598
5.25115,0.5027912,-31.34582
5.25113,0.5027342,-31.35536
5.251077,0.5027441,-31.36525
5.251109,0.5026449,-31.37519
5.251132,0.5025983,-31.38514
5.251135,0.5025569,-31.39476
5.251155,0.5025308,-31.40472
5.251136,0.502467,-31.41468
5.251099,0.5024248,-31.42407
5.251077,0.5023716,-31.43413
5.251075,0.5023615,-31.4438
5.251045,0.5022623,-31.45376
5.251024,0.5022278,-31.46379
5.251055,0.5022056,-31.47369
5.251066,0.5021675,-31.48366
5.25107,0.5021608,-31.49305
5.251122,0.5021307,-31.50327
5.25106,0.502129,-31.51326
5.251028,0.5020756,-31.52264
5.251134,0.502057,-31.53269
5.251115,0.5019845,-31.5425
5.251091,0.5019546,-31.55216
5.251064,0.5019365,-31.56209
5.251058,0.5019226,-31.57204
5.250997,0.5018897,-31.58198
5.251024,0.5018635,-31.59181
5.251026,0.5018223,-31.60168
5.251037,0.5017963,-31.61163
5.251037,0.5017827,-31.62108
5.251098,0.5017452,-31.63115
5.251057,0.5017159,-31.64117
5.251025,0.5016712,-31.65071
5.251036,0.5016216,-31.66069
5.251058,0.5015955,-31.67069
5.251071,0.501546,-31.68012
5.251031,0.5015512,-31.69
5.251003,0.50151,-31.69988
5.251034,0.5015381,-31.70952
5.251055,0.5014851,-31.71931
5.251062,0.5014467,-31.72929
5.251068,0.5014286,-31.73933
5.251024,0.5013644,-31.74938
5.25105,0.5013255,-31.75874
5.251077,0.5013071,-31.76884
5.251171,0.501288,-31.77878
5.251075,0.5012549,-31.78802
5.251047,0.5011983,-31.7982
5.251033,0.5011645,-31.80812
5.251108,0.501095,-31.81801
5.251091,0.5010886,-31.82745
5.25112,0.5010354,-31.83739
5.251119,0.5010054,-31.84754
5.251085,0.5009997,-31.85737
5.251046,0.5009041,-31.86745
5.251013,0.5008699,-31.87712
5.250951,0.5009028,-31.88692
5.250898,0.5008196,-31.89698
5.250886,0.5008008,-31.90647
5.250929,0.5007511,-31.91656
5.25093,0.5007167,-31.92655
5.251045,0.5007127,-31.93636
5.251044,0.5006524,-31.94563
5.250991,0.5006258,-31.95572
5.251001,0.5006034,-31.96539
5.250995,0.5005227,-31.97531
5.250996,0.5005156,-31.9853
5.251024,0.500474,-31.99521
5.251004,0.5004675,-32.00517
5.250972,0.5004188,-32.01528
5.25099,0.5004239,-32.02469
5.251009,0.5003786,-32.03465
5.25099,0.5003413,-32.04469
5.25098,0.5003118,-32.05413
5.251105,0.5002736,-32.06413
5.251123,0.5002634,-32.07424
5.251098,0.5002064,-32.08362
5.251075,0.5001883,-32.09368
5.251073,0.5001585,-32.10373
5.251021,0.5001487,-32.11341
5.251106,0.5000683,-32.12328
5.251062,0.5000147,-32.13333
5.251105,0.4999839,-32.1427
5.25106,0.4999536,-32.15265
5.251033,0.4999473,-32.16261
5.251015,0.4998671,-32.17269
5.251008,0.4998363,-32.18214
5.250954,0.499826,-32.19202
5.250973,0.4997612,-32.202
5.251075,0.4997458,-32.21198
5.251102,0.4997199,-32.22184
5.251077,0.4996553,-32.23122
5.251024,0.4996375,-32.24123
5.251089,0.4996031,-32.25112
5.251018,0.4995772,-32.26076
5.251095,0.4994967,-32.27067
5.251101,0.4995053,-32.2807
5.251051,0.499468,-32.29063
5.251033,0.4994189,-32.30057
5.251039,0.49935,-32.31005
5.251084,0.4993151,-32.31995
5.251147,0.4992805,-32.32998
5.251044,0.4992715,-32.33953
5.251035,0.4989806,-32.34994
5.251055,0.4994229,-32.36014
5.251068,0.4994223,-32.36959
5.251053,0.4994354,-32.37943
5.251088,0.4994057,-32.38934
5.251147,0.4994064,-32.39873
5.251115,0.4993964,-32.40862
5.25105,0.4993906,-32.4185
5.251132,0.4993719,-32.42841
5.251095,0.4993544,-32.43838
5.25111,0.4993246,-32.44851
5.251107,0.4993376,-32.45791
5.251085,0.4993084,-32.46791
5.251104,0.4992943,-32.47796
5.251134,0.4992758,-32.48754
5.25117,0.4992968,-32.4975
5.251173,0.4992596,-32.50742
10.99984,0.4945707,-13.70629
10.99994,0.4939168,-13.71859
11.00002,0.4938993,-13.72337
11.00008,0.4939251,-13.72841
11.00015,0.4939388,-13.73344
11.0002,0.4939733,-13.73861
11.00018,0.4940474,-13.74341
11.00019,0.4940286,-13.74801
11.00018,0.4940421,-13.75301
11.00016,0.4940675,-13.75824
11.00021,0.4940991,-13.76313
11.00022,0.4941078,-13.76803
11.00022,0.4941286,-13.77279
11.0002,0.4941419,-13.77774
11.00015,0.4941669,-13.7829
11.00019,0.494195,-13.78761
11.00013,0.4942156,-13.79243
11.0002,0.4942006,-13.79733
11.00028,0.4942206,-13.80238
11.00026,0.49424,-13.8052
11.0003,0.493706,-13.80994
11.00032,0.4936401,-13.81746
11.00027,0.49374,-13.82255
11.00027,0.4937586,-13.82707
11.0003,0.4937681,-13.83215
11.00034,0.4938351,-13.8372
11.00031,0.4938521,-13.84199
11.00033,0.4939072,-13.84714
11.00038,0.4939303,-13.85168
11.00038,0.4939711,-13.85688
11.00042,0.4940184,-13.86175
11.00041,0.4940543,-13.86692
11.00041,0.4941088,-13.87166
11.00043,0.4941096,-13.87665
11.00047,0.4941536,-13.88136
11.00049,0.4941887,-13.88642
11.00051,0.4942089,-13.89127
11.00042,0.4942579,-13.89633
11.00041,0.4942899,-13.9012
11.00045,0.4943406,-13.90591
11.00048,0.494349,-13.91106
11.00043,0.4943935,-13.91599
11.00049,0.4944206,-13.92066
11.00048,0.4944338,-13.9257
11.0005,0.4944812,-13.93065
11.00045,0.4945055,-13.93551
11.00047,0.494518,-13.94023
11.00046,0.4945666,-13.94535
11.00055,0.4946046,-13.9503
11.00055,0.4945943,-13.95521
11.00045,0.494659,-13.96013
11.00048,0.4946754,-13.96496
11.0005,0.4947374,-13.96969
11.00053,0.4947225,-13.97465
11.00054,0.4947744,-13.97981
11.00058,0.4947828,-13.98438
11.00052,0.4948317,-13.98967
11.00055,0.4948589,-13.99421
11.00059,0.4948595,-13.99936
11.00055,0.4949,-14.00414
11.00056,0.4949087,-14.00889
11.00061,0.4949445,-14.01419
11.00062,0.4949533,-14.01899
11.00065,0.4949819,-14.02397
11.00063,0.4950103,-14.02893
11.00064,0.4950273,-14.03353
11.00063,0.4950674,-14.03858
11.00067,0.4950906,-14.04346
11.00066,0.4950843,-14.04823
11.00068,0.4951248,-14.05349
11.00072,0.4951411,-14.05818
11.00069,0.4951739,-14.06294
11.00067,0.4951866,-14.06817
11.0007,0.4952107,-14.07289
11.00074,0.495204,-14.07775
11.00073,0.495248,-14.08305
11.00071,0.4952414,-14.08779
11.00068,0.4952558,-14.09292
11.00069,0.4953146,-14.09753
11.00067,0.4952886,-14.10245
11.00067,0.4953254,-14.10757
11.00071,0.4953308,-14.11266
11.00072,0.4953635,-14.11722
11.00072,0.4953995,-14.12212
11.00069,0.4954086,-14.12717
11.00071,0.4954303,-14.1319
11.00069,0.4954705,-14.13697
11.00075,0.4954868,-14.14195
11.00073,0.4954806,-14.14668
11.00066,0.4955252,-14.15172
11.00065,0.4955342,-14.15677
11.00066,0.4955586,-14.16128
11.00076,0.4955366,-14.16624
11.00072,0.4955501,-14.17174
11.00072,0.4955901,-14.17627
11.00067,0.4956074,-14.18144
11.00072,0.4956319,-14.18607
11.00077,0.4956479,-14.19123
11.00074,0.4956775,-14.19602
11.00078,0.4957096,-14.20075
11.00083,0.4957265,-14.2061
11.00087,0.4957706,-14.21078
11.00084,0.4957904,-14.2158
11.00082,0.4957651,-14.22074
11.00077,0.4958371,-14.22557
11.00078,0.4958259,-14.23066
11.00073,0.4958548,-14.23541
11.00073,0.4958717,-14.23991
11.00072,0.4958224,-14.24536
11.0007,0.4958552,-14.25026
11.00071,0.4958768,-14.25559
11.00074,0.4959311,-14.26006
11.00078,0.495901,-14.26526
11.0008,0.4959371,-14.27007
11.00078,0.4959458,-14.27471
11.00074,0.4959789,-14.28006
11.00071,0.4959919,-14.28484
11.00072,0.4960397,-14.29004
11.00065,0.4960564,-14.29458
11.00067,0.4960452,-14.29926
11.00068,0.496078,-14.30467
11.00071,0.4960983,-14.3094
11.00072,0.4961268,-14.31405
11.00067,0.4961472,-14.31932
11.00067,0.4961446,-14.32391
11.0007,0.4961375,-14.32932
11.00069,0.4961665,-14.33409
11.00064,0.4961911,-14.33922
11.00055,0.4962093,-14.34408
11.00062,0.496255,-14.34836
11.00069,0.4962241,-14.35362
11.00073,0.4962605,-14.35847
11.00072,0.496265,-14.36362
11.0007,0.4962858,-14.36844
11.00072,0.4963027,-14.37319
11.00074,0.4963506,-14.37846
11.00078,0.4963773,-14.38291
11.00075,0.4963552,-14.38831
11.00066,0.496389,-14.39313
11.0006,0.4964293,-14.39834
11.00062,0.4964644,-14.40284
11.00061,0.4964652,-14.40784
11.00064,0.4964895,-14.4126
11.00066,0.4965061,-14.4178
11.00066,0.4965185,-14.42241
11.00065,0.4965431,-14.42714
11.00062,0.4965568,-14.43248
11.00059,0.4966085,-14.43723
11.00059,0.4966208,-14.44238
11.00054,0.4966414,-14.44707
11.00053,0.496647,-14.45159
11.00058,0.4966005,-14.4567
11.00057,0.4966728,-14.46213
11.00064,0.4966884,-14.4668
11.00063,0.4967133,-14.47166
11.00057,0.4967265,-14.47696
11.00061,0.4967314,-14.48169
11.00059,0.4967719,-14.4864
11.00049,0.4968118,-14.49144
11.00047,0.4968179,-14.49627
11.00041,0.4968783,-14.50153
11.00039,0.496906,-14.50602
11.00047,0.4969026,-14.51111
11.00048,0.4969231,-14.51587
11.00052,0.4969329,-14.52127
11.00059,0.4969973,-14.52611
11.00065,0.4970548,-14.53147
11.00058,0.4971452,-14.53549
11.00053,0.4970397,-14.54018
11.00045,0.4971185,-14.54573
11.00046,0.4971459,-14.55022
11.00049,0.4971506,-14.55535
11.00045,0.497176,-14.5602
11.00045,0.497193,-14.56502
11.00042,0.4972369,-14.57027
11.00054,0.4972409,-14.57495
11.00052,0.497274,-14.57976
11.00049,0.4973106,-14.58505
11.00049,0.4973419,-14.58956
11.00051,0.4973623,-14.5943
11.00051,0.4973758,-14.5998
11.00053,0.4974038,-14.60456
11.00054,0.497428,-14.60925
11.0005,0.4974585,-14.61482
11.00046,0.4975256,-14.61944
11.00044,0.4975486,-14.62394
11.00047,0.4975577,-14.62925
11.00051,0.4975896,-14.63397
11.0005,0.4976066,-14.63868
11.00049,0.4976591,-14.64408
11.00048,0.49768,-14.64888
11.00051,0.4977393,-14.65409
11.00056,0.4977595,-14.65887
11.00052,0.4978038,-14.66345
11.00051,0.4978274,-14.6684
11.00047,0.4978451,-14.6731
11.00044,0.4978949,-14.67847
11.00039,0.4979527,-14.68282
11.00053,0.497891,-14.6882
11.00049,0.4979283,-14.69315
11.00049,0.4979683,-14.69776
11.00051,0.4980001,-14.70293
11.00046,0.498018,-14.70771
11.00047,0.4980744,-14.71315
11.0004,0.4981077,-14.71788
11.00039,0.4981603,-14.72267
11.00037,0.4982192,-14.72787
11.00035,0.4982362,-14.73263
11.00031,0.4982969,-14.73739
11.00034,0.4983385,-14.74283
11.00027,0.498422,-14.74768
11.00032,0.4985145,-14.75233
11.00039,0.4985762,-14.75739
11.00043,0.4986512,-14.76218
11.00042,0.4987089,-14.76693
11.00042,0.4988204,-14.7723
11.00045,0.4988945,-14.77714
11.00051,0.4990344,-14.78213
11.0005,0.4991908,-14.78757
11.00051,0.4993434,-14.79225
11.00049,0.4995312,-14.79777
11.00056,0.4997279,-14.80223
11.00062,0.4998951,-14.80719
11.00055,0.5001837,-14.81286
11.0005,0.5004515,-14.81756
11.00046,0.5007713,-14.82303
11.00048,0.501097,-14.82759
11.00043,0.5013927,-14.83233
11.00034,0.5018051,-14.83789
11.00033,0.5022078,-14.84252
11.00023,0.5026163,-14.84756
11.00028,0.5029983,-14.85269
11.00028,0.5035239,-14.85782
11.00031,0.5039927,-14.86241
11.00036,0.5045356,-14.86767
11.00037,0.5050321,-14.87267
11.00041,0.505621,-14.87761
11.00054,0.5062076,-14.88236
11.00047,0.5067028,-14.88755
11.00043,0.5073918,-14.89258
11.00042,0.5079496,-14.89733
11.00043,0.5086477,-14.90257
11.00043,0.5092449,-14.90717
11.00047,0.5099764,-14.91233
11.00054,0.5105896,-14.91693
11.00052,0.5113154,-14.9221
11.00053,0.512087,-14.92744
11.00049,0.5128292,-14.93209
11.00043,0.5135803,-14.937
11.00044,0.5143154,-14.94185
11.00044,0.5151103,-14.94719
11.00035,0.5159102,-14.9518
11.00027,0.5167204,-14.95668
11.00014,0.5175473,-14.96186
11.00008,0.5185118,-14.96728
11,0.5192962,-14.97145
11.00016,0.5201139,-14.9762
11.00026,0.5210139,-14.98124
11.0004,0.5219719,-14.98646
11.00042,0.5229239,-14.99137
11.00047,0.5238751,-14.99616
11.00042,0.5248137,-15.00118
11.00039,0.525796,-15.0059
11.00044,0.5267573,-15.01077
11.00042,0.5277543,-15.01558
11.00042,0.5287628,-15.02056
11.00036,0.5298178,-15.02535
11.00026,0.5308522,-15.03029
11.00025,0.5321631,-15.03603
11.00018,0.5331589,-15.04023
11.00009,0.5341565,-15.04507
11.00024,0.5354112,-15.05029
11.00034,0.5365642,-15.05516
11.00033,0.537708,-15.05977
11.00026,0.5387679,-15.0643
11.00007,0.5399946,-15.06929
10.99998,0.5414471,-15.07483
11,0.5426078,-15.07923
11.00001,0.5437712,-15.08412
11.00001,0.545174,-15.0894
11.00009,0.5464337,-15.09405
11.00004,0.5476753,-15.09867
11.00028,0.5489865,-15.10353
11.00006,0.5503617,-15.10864
11.00025,0.5517524,-15.11364
11.00044,0.5529332,-15.11778
11.00065,0.554336,-15.1227
11.00058,0.5557323,-15.12748
11.0003,0.557126,-15.13235
11.00047,0.5585168,-15.13709
11.00033,0.5597838,-15.14155
11.00045,0.5612189,-15.14644
11.00043,0.5628373,-15.15169
11.00032,0.5641994,-15.15609
11.00004,0.5657226,-15.16146
11.00021,0.5673316,-15.1658
11.00031,0.5685479,-15.16967
11.00021,0.5702829,-15.17537
11.00021,0.5719866,-15.1807
11.00024,0.5734283,-15.185
11.0004,0.5747026,-15.1893
11.00054,0.5764072,-15.19433
11.00064,0.578081,-15.19897
11.00079,0.5797621,-15.20412
11.00088,0.5812666,-15.20868
11.00073,0.5830414,-15.214
11.00035,0.584551,-15.21789
11.00019,0.5858139,-15.222
11.00014,0.5878641,-15.22769
11.00006,0.5895401,-15.23254
11.00005,0.5911514,-15.23729
11.00025,0.5929755,-15.24215
11.00058,0.5946772,-15.24684
11.00062,0.5963108,-15.25138
11.00045,0.5980589,-15.25605
11.00036,0.5996708,-15.26037
11.00018,0.6014855,-15.26514
11.00013,0.6030149,-15.26931
11.00015,0.6048385,-15.27432
11.00027,0.6069474,-15.27978
11.00035,0.6086317,-15.2842
11.00034,0.6106645,-15.28941
11.00026,0.6123193,-15.29347
11.00013,0.6139659,-15.29781
11.00001,0.6157928,-15.30265
10.99998,0.6178094,-15.30761
11.00005,0.6195826,-15.31193
11.00017,0.6213909,-15.31648
11.00026,0.6235832,-15.32188
11.00059,0.6253057,-15.32593
11.0008,0.6272731,-15.33116
11.00061,0.6291718,-15.33552
11.0005,0.6309745,-15.33988
11.00037,0.6328767,-15.34452
11.00038,0.6350483,-15.3496
11.00039,0.6367744,-15.35364
11.00019,0.6388718,-15.3587
11.00012,0.6409368,-15.36343
11.00021,0.6427459,-15.36749
11.00028,0.6449135,-15.37253
11.00025,0.6467884,-15.37665
11.0002,0.6486241,-15.381
11.00014,0.6508726,-15.3859
11.00003,0.6528001,-15.39026
11.00001,0.6550014,-15.39508
10.99999,0.6570696,-15.39959
10.99996,0.6589755,-15.40368
11.00001,0.6612994,-15.40911
11.00001,0.6633437,-15.41331
10.99999,0.6652465,-15.41753
11.00019,0.6674642,-15.42221
11.00025,0.6693348,-15.42638
11.00023,0.6719013,-15.43188
11.00024,0.6739123,-15.43593
11.0002,0.6757778,-15.43995
11.00017,0.6781397,-15.44492
11.0002,0.6801967,-15.44917
11.00027,0.682493,-15.45397
11.00024,0.6846438,-15.45838
11.00026,0.6866825,-15.46253
11.00012,0.689018,-15.46737
10.99997,0.6911434,-15.47169
10.99999,0.6934446,-15.47628
11.00001,0.6954549,-15.48039
11,0.6977146,-15.48491
10.99987,0.6998222,-15.48932
10.99991,0.7023114,-15.49423
11.00003,0.7045363,-15.49867
11.00017,0.706703,-15.50276
11.00031,0.708967,-15.50735
11.00038,0.7114048,-15.51207
11.00036,0.7135898,-15.51621
11.00023,0.7157873,-15.52063
11.00013,0.7182388,-15.52515
11.00011,0.7204318,-15.52952
11.00012,0.7229053,-15.53411
11.00007,0.7249818,-15.53801
10.99998,0.7274149,-15.54269
10.99999,0.7297995,-15.54732
11.00001,0.7318841,-15.55106
10.99994,0.7342521,-15.55578
11.00003,0.7369035,-15.56072
11.00007,0.7391422,-15.56474
11.00008,0.7414717,-15.56911
11.0002,0.7438135,-15.57355
11.0002,0.7461369,-15.57769
11.00007,0.748536,-15.58211
11.00019,0.7507336,-15.58615
11.00023,0.7529593,-15.59029
11.00013,0.7557546,-15.59553
11.00012,0.7580347,-15.59942
11.00003,0.7604127,-15.60377
10.99999,0.7628818,-15.60826
11.00009,0.7653094,-15.61262
11.00026,0.767801,-15.61701
11.00039,0.7700507,-15.62117
11.00037,0.7727815,-15.62594
11.00038,0.7749633,-15.62983
11.00042,0.7772959,-15.63404
11.00046,0.7798985,-15.6386
11.00032,0.7822839,-15.64285
11.00023,0.784686,-15.64703
11.00009,0.7872832,-15.65149
11.00007,0.7896767,-15.65577
11.00014,0.7920658,-15.65975
11.00003,0.794716,-15.66457
11.00009,0.7973526,-15.66892
11.00026,0.7996303,-15.67284
11.00025,0.8023472,-15.67758
11.00021,0.8046126,-15.6814
11.00008,0.807241,-15.6861
10.99992,0.8098769,-15.69054
10.99996,0.8120344,-15.69413
11.00031,0.8147101,-15.69889
11.00028,0.8173558,-15.70322
11.00014,0.8199576,-15.70759
11.00025,0.8222234,-15.71141
11.00027,0.8250811,-15.71637
11.00023,0.827447,-15.72015
11.00011,0.8296664,-15.72402
11.00022,0.8326176,-15.72887
11.00033,0.8350446,-15.73292
11.0004,0.8377711,-15.73739
11.00045,0.8400362,-15.74114
11.00034,0.8427542,-15.74578
11.00043,0.8453143,-15.75002
11.00062,0.8479504,-15.75434
11.00055,0.8504112,-15.75851
11.00032,0.8530436,-15.76276
11.00033,0.8557631,-15.76724
11.00053,0.8583333,-15.77146
11.00059,0.8608942,-15.77556
11.00061,0.86352,-15.77977
11.00051,0.8660741,-15.784
11.00033,0.8687583,-15.78822
11.0003,0.870959,-15.79173
11.00003,0.8738774,-15.79664
11.00014,0.8766189,-15.80087
11.00029,0.8789179,-15.80458
11.00029,0.88178,-15.80922
11.00024,0.8842001,-15.81305
11.00021,0.8865917,-15.81701
11.00033,0.8894747,-15.82165
11.00028,0.8919588,-15.82567
11.00027,0.8947912,-15.83021
11.00027,0.8972338,-15.83411
11.00034,0.8997276,-15.83814
11.00028,0.9027528,-15.843
11.00025,0.9053349,-15.84699
11.00026,0.9080514,-15.85126
11.00016,0.9104041,-15.85491
11.0002,0.9126954,-15.85869
11.00016,0.9158221,-15.86377
11.00002,0.9184857,-15.86787
11.00014,0.9211136,-15.87195
11.00018,0.9233285,-15.87552
11.00016,0.9258934,-15.87975
11.00038,0.9291258,-15.88488
11.00045,0.9316923,-15.88877
11.00054,0.9342206,-15.89281
11.00057,0.936868,-15.89709
11.00062,0.9394543,-15.90106
11.00054,0.9421684,-15.90533
11.00048,0.9447811,-15.9095
11.00037,0.9472277,-15.91327
11.00012,0.9498574,-15.91749
11.00022,0.9528603,-15.9223
11.00024,0.9555535,-15.92621
11.00027,0.9582201,-15.93036
11.00035,0.9608542,-15.93452
11.0002,0.9632514,-15.93823
10.99998,0.9657747,-15.9424
11.00013,0.9690303,-15.94736
11.0003,0.9713664,-15.95095
11.00017,0.9738833,-15.95498
11.00022,0.9768849,-15.95957
11.00019,0.9792614,-15.96327
10.99994,0.9817271,-15.96718
11.00006,0.9847636,-15.97203
11.00031,0.9875643,-15.97632
11.00043,0.9902988,-15.98038
11.00043,0.9924754,-15.98384
11.00054,0.9950943,-15.98805
11.00032,0.9982322,-15.99294
11.00035,1.000641,-15.99652
11.00042,1.003328,-16.00087
11.00021,1.005864,-16.00478
10.99988,1.008598,-16.00919
10.99978,1.011446,-16.01359
10.99991,1.013904,-16.01727
11.00001,1.016487,-16.02138
11,1.019243,-16.02575
11.00024,1.021944,-16.02993
11.00041,1.024885,-16.0345
11.00023,1.027481,-16.03844
10.99998,1.030233,-16.04266
11.00011,1.032671,-16.04653
11.00024,1.035366,-16.05071
11.00026,1.038149,-16.05501
11.00017,1.040441,-16.05863
11.00033,1.043053,-16.06282
11.0006,1.04601,-16.06731
11.00045,1.048406,-16.07105
11.00029,1.051536,-16.076
11.00036,1.053885,-16.07944
11.0002,1.05594,-16.08283
11.00013,1.059252,-16.08814
11.00013,1.062083,-16.09248
11.00011,1.064735,-16.09644
10.99996,1.067214,-16.10048
11.00005,1.069967,-16.1046
11.00018,1.072336,-16.10835
11.00009,1.075325,-16.11307
11.00007,1.078049,-16.11723
10.99992,1.080743,-16.12124
10.99991,1.082893,-16.12471
10.99986,1.085916,-16.1295
10.99987,1.088335,-16.13326
11.00004,1.09104,-16.13763
11.00017,1.093635,-16.14166
11.00009,1.096482,-16.14622
11.00008,1.098963,-16.15006
11.00015,1.10167,-16.15441
10.99999,1.104318,-16.15855
11.00011,1.106972,-16.16268
11.0001,1.109908,-16.16717
11.00028,1.1124,-16.17108
11.00042,1.114931,-16.17492
11.00037,1.11757,-16.17914
11.00028,1.120257,-16.18337
11.00011,1.122832,-16.1874
11.00007,1.125345,-16.19137
11.00006,1.128249,-16.19598
11.00013,1.130706,-16.19975
11.00014,1.133006,-16.20347
11.00019,1.135867,-16.20808
11.00007,1.138322,-16.21199
11.00008,1.141337,-16.21684
11.00031,1.14382,-16.2206
11.00026,1.146118,-16.22431
11.00007,1.149026,-16.22897
10.99995,1.151365,-16.23273
10.99998,1.154037,-16.23715
11.00011,1.157049,-16.24169
11.00012,1.159376,-16.24541
11.00002,1.16186,-16.24941
11.00017,1.164683,-16.25395
11.00019,1.167229,-16.258
11.00035,1.170196,-16.26272
11.00036,1.17246,-16.2662
11.00036,1.174785,-16.27009
11.00027,1.177422,-16.27447
11.00009,1.180201,-16.27898
10.99988,1.182604,-16.28288
10.99996,1.185039,-16.28684
11.00006,1.187885,-16.29155
11.00009,1.190321,-16.29545
11.00014,1.193108,-16.30011
11.00022,1.195742,-16.30424
11.00034,1.198013,-16.30792
11.00027,1.200822,-16.31259
11.0002,1.203385,-16.31668
11.00006,1.205839,-16.32072
10.99996,1.20816,-16.32443
10.99988,1.210846,-16.32898
10.99983,1.213499,-16.3332
11.00009,1.215743,-16.33685
11.00026,1.218516,-16.34159
11.00032,1.221077,-16.3458
11.00042,1.223386,-16.3496
11.00033,1.226075,-16.35418
11.00031,1.228755,-16.3586
11.00024,1.230982,-16.36223
10.99996,1.233578,-16.36663
10.99995,1.236166,-16.3709
11.00003,1.23888,-16.37531
11.00008,1.241142,-16.37911
11.00003,1.243602,-16.38328
10.99999,1.246272,-16.38771
11.00002,1.248638,-16.39174
11.00011,1.251257,-16.39607
11.0001,1.253689,-16.4003
11.00013,1.256171,-16.40437
11.00006,1.258578,-16.40847
11.00011,1.260892,-16.41254
11.00025,1.26375,-16.4174
11.00018,1.266003,-16.42122
11.00017,1.268739,-16.42594
11.00022,1.271012,-16.4297
11.00016,1.273604,-16.43424
11.00005,1.275972,-16.43823
11.00008,1.278207,-16.44216
11.00008,1.280917,-16.44691
11.00006,1.283438,-16.45124
11.0001,1.28573,-16.45511
11.00007,1.288195,-16.45946
11.00011,1.290585,-16.46363
11.00015,1.292919,-16.46778
11.00012,1.295566,-16.47238
11.00006,1.29775,-16.47628
11.0001,1.300168,-16.48061
11.00011,1.302561,-16.48477
11.00005,1.305284,-16.48956
11.00005,1.307496,-16.49333
11.00015,1.309717,-16.49741
11.00012,1.312099,-16.50178
11.00007,1.314361,-16.5058
11.00011,1.316961,-16.5106
11.00017,1.319292,-16.51472
11.0002,1.321658,-16.51904
11.00017,1.323939,-16.52325
11.00017,1.326448,-16.52773
11.00026,1.328568,-16.53168
11.00017,1.331151,-16.53642
11.00016,1.333377,-16.54049
11.00015,1.335746,-16.54489
11.00019,1.337862,-16.54885
11.00017,1.340349,-16.55347
11.00017,1.342682,-16.55782
11.00024,1.344933,-16.56202
11.00028,1.347311,-16.56656
11.0003,1.349642,-16.5709
11.00024,1.351713,-16.57482
11.00018,1.353904,-16.57918
11.00024,1.356252,-16.58362
11.00024,1.358503,-16.58799
11.0002,1.360774,-16.59228
11.0002,1.362992,-16.59653
11.00022,1.365063,-16.60065
11.00026,1.367534,-16.60544
11.00025,1.369674,-16.60962
11.00035,1.372052,-16.61423
11.00035,1.374154,-16.61834
11.00033,1.376443,-16.6227
11.00036,1.378538,-16.62687
11.00034,1.380744,-16.63121
11.0004,1.382942,-16.63564
11.00036,1.385191,-16.64011
11.00036,1.387313,-16.64435
11.00032,1.38956,-16.64895
11.00032,1.391815,-16.6533
11.00028,1.393973,-16.65766
11.00024,1.39619,-16.66197
11.00017,1.398122,-16.66585
11.00019,1.400258,-16.67031
11.00018,1.402491,-16.67476
11.00029,1.404703,-16.6793
11.00023,1.406941,-16.6837
11.00017,1.409023,-16.68791
11.00025,1.411099,-16.69215
11.00033,1.413284,-16.69669
11.00037,1.415507,-16.70121
11.00038,1.417646,-16.70561
11.00034,1.419855,-16.71008
11.00029,1.422006,-16.71454
11.00029,1.424213,-16.71909
11.00025,1.426393,-16.72335
11.00023,1.428312,-16.72742
11.00018,1.430433,-16.73194
11.00032,1.432768,-16.73673
11.00032,1.434809,-16.74096
11.00038,1.436795,-16.74501
11.00042,1.439023,-16.74975
11.00038,1.441255,-16.75435
11.0003,1.44332,-16.75852
11.0003,1.445214,-16.76249
11.00028,1.447526,-16.76745
11.00027,1.449658,-16.77185
11.00027,1.451694,-16.77622
11.00028,1.453858,-16.78073
11.00024,1.455857,-16.78492
11.00021,1.457959,-16.78948
11.00024,1.459999,-16.79377
11.00025,1.462094,-16.79814
11.00023,1.464133,-16.8026
11.00021,1.466465,-16.80755
11.00025,1.468333,-16.8114
11.00027,1.470352,-16.81578
11.00025,1.472701,-16.82086
11.00026,1.474638,-16.8248
11.00025,1.47668,-16.82928
11.00026,1.478644,-16.8335
11.00024,1.48072,-16.83803
11.00023,1.482939,-16.84295
11.00024,1.484922,-16.84716
11.00023,1.486942,-16.85155
11.00023,1.488828,-16.85571
11.00025,1.491024,-16.86056
11.00026,1.492882,-16.86465
11.00027,1.49512,-16.86964
11.00031,1.497159,-16.87401
11.00037,1.499225,-16.87853
11.00043,1.501097,-16.88269
11.00041,1.503099,-16.88715
11.0003,1.505255,-16.89183
11.00022,1.507072,-16.89588
11.00016,1.509297,-16.90087
11.00022,1.511279,-16.90517
11.00023,1.513236,-16.90947
11.00035,1.515097,-16.91379
11.00028,1.5174,-16.91889
11.00025,1.519232,-16.92291
11.00025,1.521215,-16.92742
11.00021,1.523083,-16.93172
11.00024,1.525254,-16.93662
11.00015,1.52704,-16.94065
11.00023,1.529238,-16.94571
11.00031,1.531145,-16.94991
11.00034,1.533141,-16.95448
11.00033,1.535107,-16.95896
11.00028,1.537066,-16.9634
11.00027,1.53912,-16.96795
11.00025,1.540858,-16.97205
11.00029,1.543038,-16.97706
11.00024,1.544944,-16.98142
11.00027,1.546779,-16.98558
11.00025,1.548866,-16.99041
11.00023,1.550663,-16.99447
11.00024,1.55277,-16.99945
11.00017,1.554651,-17.00365
11.0002,1.556442,-17.00788
11.0002,1.558298,-17.01241
11.00021,1.560442,-17.0173
11.00024,1.562252,-17.02158
11.0002,1.564283,-17.02617
11.00024,1.566008,-17.0304
11.00029,1.568248,-17.03557
11.00027,1.570025,-17.03971
11.00021,1.57202,-17.04444
11.00017,1.573876,-17.04882
11.00015,1.575916,-17.0536
11.00014,1.577752,-17.05798
11.00019,1.57954,-17.06217
11.0003,1.581521,-17.06693
11.00035,1.583366,-17.07128
11.00022,1.58531,-17.07593
11.00018,1.587066,-17.08023
11.00017,1.589072,-17.08506
11.00017,1.590899,-17.08953
11.0002,1.592743,-17.09387
11.00017,1.5947,-17.09867
11.00019,1.596481,-17.1029
11.00022,1.598445,-17.1078
11.00027,1.600479,-17.11263
11.00037,1.602235,-17.11665
11.00035,1.604088,-17.1212
11.00036,1.605925,-17.12563
11.00036,1.607896,-17.13044
11.00038,1.609698,-17.13485
11.00035,1.611504,-17.13921
11.00036,1.613464,-17.14399
11.00033,1.615247,-17.14839
11.00031,1.617194,-17.15308
11.00029,1.618831,-17.15718
11.00026,1.620629,-17.16169
11.00029,1.622597,-17.16648
11.00027,1.624279,-17.17077
11.0003,1.626321,-17.17579
11.00029,1.627979,-17.1799
11.00023,1.629949,-17.18487
11.00026,1.631806,-17.18952
11.00028,1.633585,-17.19379
11.00029,1.635428,-17.19842
11.00029,1.637194,-17.20282
11.0003,1.6391,-17.20759
11.00031,1.640789,-17.21186
11.00038,1.642551,-17.2163
11.00036,1.644507,-17.22118
11.00029,1.646228,-17.22552
11.0003,1.648166,-17.23041
11.00032,1.64995,-17.23487
11.00034,1.651655,-17.23912
11.0003,1.653567,-17.24394
11.0003,1.65523,-17.24819
11.00034,1.657228,-17.25327
11.00027,1.65901,-17.25773
11.00026,1.660697,-17.26199
11.00028,1.662705,-17.26706
11.00027,1.664422,-17.2713
11.00018,1.666088,-17.27561
11.00015,1.668092,-17.28066
11.00018,1.669808,-17.28501
11.00018,1.671576,-17.28948
11.00017,1.67345,-17.29423
11.00012,1.675254,-17.29887
11.00008,1.676969,-17.3031
11.00011,1.678841,-17.3079
11.00019,1.680532,-17.31215
11.00024,1.682382,-17.31696
11.00027,1.684184,-17.32159
11.00024,1.686079,-17.3263
11.0003,1.687635,-17.33036
11.00032,1.689361,-17.33486
11.00032,1.691358,-17.33996
11.00027,1.692988,-17.34406
11.00028,1.694802,-17.34887
11.00028,1.696589,-17.35344
11.00031,1.69853,-17.35838
11.00038,1.700276,-17.36281
11.00037,1.701959,-17.36707
11.00033,1.703903,-17.3721
11.00037,1.705574,-17.37629
11.00035,1.707206,-17.38065
11.00031,1.709163,-17.38566
11.00023,1.710933,-17.3903
11.00021,1.712686,-17.39467
11.00019,1.714443,-17.39922
11.00021,1.716091,-17.4036
11.00011,1.71787,-17.40829
11.00017,1.719829,-17.41329
11.0003,1.721513,-17.41774
11.00034,1.723307,-17.42229
11.00031,1.725104,-17.42691
11.00034,1.726749,-17.43132
11.00036,1.728484,-17.43577
11.00039,1.730347,-17.44067
11.00035,1.732038,-17.44503
11.00032,1.733927,-17.44998
11.0003,1.735582,-17.45425
11.00018,1.737353,-17.45898
11.0002,1.739049,-17.46349
11.00022,1.740736,-17.4679
11.00033,1.742513,-17.47257
11.0003,1.744097,-17.47686
11.00029,1.745926,-17.48175
11.00034,1.7476,-17.48635
11.00032,1.749655,-17.49165
11.00031,1.751198,-17.49561
11.00028,1.752739,-17.5
11.00036,1.754732,-17.50518
11.00039,1.756393,-17.50964
11.00037,1.758098,-17.51408
11.00041,1.759865,-17.51884
11.00037,1.761497,-17.52329
11.00036,1.76315,-17.52774
11.00037,1.764742,-17.53209
11.00033,1.766608,-17.53722
11.00025,1.768262,-17.54165
11.00019,1.770051,-17.5465
11.00024,1.771608,-17.55078
11.0002,1.773191,-17.55516
11.00023,1.774993,-17.56007
11.00025,1.776588,-17.56448
11.00029,1.778443,-17.56945
11.00022,1.779878,-17.57342
11.00019,1.781665,-17.57846
11.0002,1.783258,-17.58279
11.00028,1.784881,-17.58732
11.00038,1.78649,-17.59185
11.00034,1.788197,-17.59649
11.00033,1.789774,-17.60096
11.00029,1.791412,-17.60554
11.00025,1.793199,-17.61059
